# .PCD v0.7 - Point Cloud Data file format
VERSION 0.7
FIELDS x y z
SIZE 4 4 4
TYPE F F F
COUNT 1 1 1
WIDTH 1452
HEIGHT 1
VIEWPOINT 0 0 0 1 0 0 0
POINTS 1452
DATA ascii
4.2506618 -3.4609914 -0.09567944
1.0783074 -0.86904305 -0.17004581
1.4430252 -1.162981 -0.16214564
2.145498 -1.7291268 -0.14441204
4.2497301 -3.4249961 -0.095271312
1.0828285 -0.86378074 -0.17007472
1.4296281 -1.1404254 -0.15999675
2.1475086 -1.7130843 -0.14396831
4.2583179 -3.3968935 -0.095081411
1.0802495 -0.85290927 -0.16899687
1.4444056 -1.1404281 -0.16100958
2.1634657 -1.7081609 -0.14446297
4.2759266 -3.3760509 -0.095096007
1.0841151 -0.84718525 -0.16893598
1.4540102 -1.136241 -0.16144411
2.1695514 -1.6954027 -0.14430076
4.2809896 -3.3453932 -0.094834939
1.0921023 -0.84465492 -0.16951954
1.4518845 -1.1229181 -0.16058187
2.1826425 -1.6881018 -0.14460756
4.3009496 -3.3264453 -0.094907001
1.0905105 -0.83473235 -0.16862167
1.4484978 -1.1087542 -0.15959138
2.18134 -1.6697088 -0.14396565
4.3102627 -3.2992949 -0.09474685
1.1039689 -0.83630252 -0.17005318
1.4609414 -1.1067241 -0.16034992
2.1871936 -1.6568905 -0.14380272
4.3189597 -3.2717922 -0.094576783
1.0940222 -0.82018 -0.16788642
1.4673399 -1.1000533 -0.16044573
2.1819913 -1.6358221 -0.14292046
4.3257508 -3.2429819 -0.094368793
1.1120981 -0.82506722 -0.17002434
1.467038 -1.0883976 -0.15981492
2.2002096 -1.6323386 -0.1435767
4.330472 -3.2127833 -0.09411972
1.1109071 -0.81559283 -0.16921587
1.474384 -1.082446 -0.16002283
2.2013922 -1.6161925 -0.14312407
4.3268967 -3.1766708 -0.093695201
1.1176947 -0.8119961 -0.16962844
1.4745744 -1.0712663 -0.15945941
2.2109909 -1.606267 -0.14322354
4.3401957 -3.1531167 -0.093640178
1.1253569 -0.80898643 -0.17017451
1.4816927 -1.0651459 -0.15965053
2.211334 -1.5896639 -0.14272845
4.3612866 -3.1352024 -0.093755402
1.1151375 -0.79320258 -0.16802655
1.4900993 -1.0599147 -0.15998259
2.2346363 -1.5895075 -0.14371705
4.3467436 -3.0918593 -0.093108848
1.1189343 -0.78749734 -0.16800252
1.4932108 -1.0509102 -0.15974979
2.2330816 -1.5716255 -0.14310925
4.3728848 -3.0776024 -0.093337603
1.125706 -0.78386563 -0.16842791
1.5037769 -1.0471288 -0.16031736
2.2418711 -1.5610877 -0.14316989
4.377933 -3.0484972 -0.093118437
105.44819 -73.427002 2.2428813
1.1278515 -0.7770046 -0.1681648
1.5018631 -1.0346705 -0.1595591
2.239222 -1.5426551 -0.14250572
4.3874683 -3.0226347 -0.092998222
101.99638 -70.267815 2.161952
1.1239234 -0.76602978 -0.16700524
1.5077879 -1.0276594 -0.15963997
2.2445621 -1.5298208 -0.14235638
4.3960185 -2.9961839 -0.092860356
98.800423 -67.339165 2.0870376
1.1341903 -0.76473987 -0.16795982
1.5094868 -1.0177876 -0.15927838
2.2461445 -1.5144868 -0.14197409
4.4097705 -2.9733348 -0.092835248
95.840218 -64.621284 2.0176475
1.1385716 -0.75943053 -0.16804352
1.5086066 -1.0062448 -0.15865193
2.25719 -1.5055521 -0.14219406
4.416626 -2.9459019 -0.09266793
93.084183 -62.087414 1.953059
1.1534667 -0.76104969 -0.16967745
1.5215204 -1.003889 -0.15947948
2.2701957 -1.49786 -0.14253919
4.4190211 -2.9156406 -0.092410766
90.538528 -59.736717 1.8933485
1.1364002 -0.7416504 -0.16661867
1.5287467 -0.99770796 -0.15971138
2.2642717 -1.4777346 -0.14170097
4.4353657 -2.8946586 -0.092448361
88.147209 -57.527626 1.8372953
1.1484963 -0.74137264 -0.16784589
1.5266651 -0.98548669 -0.1589765
2.2778907 -1.4704148 -0.1420908
4.4309015 -2.8602176 -0.092055701
85.922386 -55.464272 1.7851123
1.15437 -0.73700333 -0.16816297
1.5354729 -0.98031718 -0.15938061
2.2827406 -1.4574075 -0.14193642
4.4486098 -2.840199 -0.09212704
83.841637 -53.528389 1.7362936
1.1402758 -0.7199952 -0.16558266
1.534564 -0.96895736 -0.15878077
2.2933128 -1.4480479 -0.14214124
4.4522076 -2.8112214 -0.091908932
81.887001 -51.705246 1.6904328
1.1586207 -0.72349107 -0.16771848
1.5394754 -0.96131265 -0.15878899
2.2889287 -1.4293026 -0.14142424
4.460206 -2.7851388 -0.091785066
80.04995 -49.98653 1.6473231
1.1674312 -0.72089463 -0.16846932
1.5345762 -0.94760841 -0.15779236
2.2984071 -1.4192779 -0.14156909
4.4619861 -2.7552989 -0.091536693
78.319687 -48.362801 1.6067139
1.167756 -0.7130447 -0.16799895
1.5482365 -0.94537032 -0.15870835
2.2933435 -1.4003409 -0.14082363
4.4717016 -2.7304704 -0.091454424
76.68969 -46.827572 1.5684458
1.1543169 -0.69692934 -0.16556151
1.5606204 -0.94223881 -0.15949227
2.2951031 -1.3856894 -0.14050393
4.4768052 -2.7029119 -0.091280915
75.158905 -45.377872 1.532473
1.1662956 -0.69621837 -0.1667776
1.5680326 -0.93603468 -0.15976888
2.32096 -1.3854935 -0.14166047
4.485034 -2.6773341 -0.09117426
73.693588 -43.991276 1.4980863
1.1709428 -0.69106519 -0.16694532
1.5642906 -0.92321056 -0.15891467
2.3228564 -1.3708997 -0.14135554
4.4987593 -2.6550708 -0.091181926
72.320419 -42.681953 1.4658097
1.175828 -0.6860348 -0.16715005
1.5557939 -0.90772521 -0.15758787
2.3172579 -1.3520001 -0.1406012
4.4980798 -2.6243968 -0.090900719
70.988503 -41.418118 1.4345933
1.1848459 -0.68336856 -0.16794357
1.5659828 -0.90319204 -0.15815993
2.3343658 -1.3463626 -0.1412285
4.5052514 -2.5984366 -0.090781622
69.756485 -40.232563 1.4056078
1.1747805 -0.66974813 -0.16603953
1.5787652 -0.90006167 -0.15899383
2.3298995 -1.3282871 -0.14055422
4.5274014 -2.5810935 -0.090966441
68.586266 -39.101364 1.3780658
1.1870812 -0.66890877 -0.16730267
1.5682424 -0.8836894 -0.1574866
2.3494358 -1.3238844 -0.14133117
4.5230427 -2.5486906 -0.090621352
67.470749 -38.019115 1.3518112
1.187526 -0.66134858 -0.16689663
1.5813096 -0.88065177 -0.15835412
2.3320618 -1.2987554 -0.13989314
4.5342522 -2.5251839 -0.090591528
66.377365 -36.966412 1.3261801
1.1825428 -0.65083861 -0.16573627
1.5660774 -0.86192542 -0.15639466
2.342875 -1.2894533 -0.14015281
4.5508738 -2.5046744 -0.090671949
65.381432 -35.984123 1.3026664
1.1903483 -0.64739156 -0.16637391
1.5868064 -0.86301225 -0.15803131
2.3555708 -1.2811182 -0.14052685
4.5490012 -2.4740531 -0.090386726
64.397942 -35.023937 1.2795616
1.1925118 -0.64085329 -0.16622581
1.5809515 -0.8495999 -0.15702266
2.3488176 -1.2622495 -0.13974522
4.5607471 -2.4509356 -0.090375185
63.47723 -34.112526 1.2578585
1.1978487 -0.63601339 -0.1665238
1.5903972 -0.84444213 -0.15753895
2.3698199 -1.2582868 -0.14061823
4.5510607 -2.416445 -0.089942388
62.580582 -33.227978 1.2367787
1.2106827 -0.63507861 -0.16786388
1.594799 -0.83657157 -0.15755814
2.3828759 -1.2499671 -0.14101987
4.5579128 -2.3909094 -0.089840122
61.740093 -32.386532 1.2169486
1.1932886 -0.61835647 -0.16502085
1.594049 -0.82602865 -0.15707353
2.3856447 -1.2362298 -0.14081569
4.5779881 -2.3722916 -0.0900006
60.910503 -31.563532 1.1974671
1.2045909 -0.61658317 -0.16615489
1.61975 -0.8290869 -0.15919505
2.3754559 -1.2159033 -0.13985322
4.5661941 -2.3372569 -0.089537583
60.146717 -30.786762 1.1794066
1.2219323 -0.61775911 -0.16811818
1.5959811 -0.80686301 -0.15645999
2.3809757 -1.2037244 -0.13982166
4.5906863 -2.320864 -0.089788891
59.401245 -30.030848 1.1618261
1.2156116 -0.60694176 -0.16682841
1.6072452 -0.80248028 -0.15716843
2.3967943 -1.1966937 -0.14039701
4.584445 -2.288964 -0.089441568
58.671623 -29.294111 1.1446728
1.2122669 -0.59770888 -0.16595666
1.6254026 -0.80140561 -0.15854968
2.3839092 -1.1753876 -0.13929582
4.5885601 -2.262392 -0.089299761
58.009937 -28.60183 1.1289556
1.2166936 -0.5923382 -0.16615462
1.6206933 -0.78902245 -0.15770303
2.3953447 -1.1661557 -0.13962114
4.6062088 -2.2424984 -0.089423627
57.354954 -27.922831 1.1134742
1.2291647 -0.59081608 -0.16745168
1.6210253 -0.77916962 -0.15735379
2.400537 -1.1538534 -0.13958533
4.6191206 -2.2202482 -0.089457378
56.704884 -27.256037 1.0981911
1.2181551 -0.57803476 -0.16555552
1.6276007 -0.77232349 -0.15761478
2.4021156 -1.1398436 -0.13934356
4.6082401 -2.1866863 -0.089033529
56.096939 -26.618925 1.0838227
1.2293451 -0.57582223 -0.16668244
1.6254079 -0.7613371 -0.15703136
2.4083545 -1.1280673 -0.13937612
4.6278996 -2.1676967 -0.089202575
55.516407 -26.003748 1.070078
1.2181734 -0.56317025 -0.16478336
1.6336553 -0.75525057 -0.1574609
2.4091427 -1.1137639 -0.13909732
4.6357031 -2.1431186 -0.089145064
54.957165 -25.407091 1.0568336
1.2215788 -0.55733913 -0.16486453
1.6439576 -0.75004727 -0.15808998
2.4218082 -1.1049377 -0.13950744
4.629282 -2.1120863 -0.088817142
54.41029 -24.824417 1.0439142
1.241883 -0.5591085 -0.16722491
1.6515867 -0.74356133 -0.15846367
2.4285734 -1.0933686 -0.13958009
4.6443901 -2.0909522 -0.088905051
53.888676 -24.261236 1.0315633
1.242233 -0.55180341 -0.16689798
1.6382093 -0.72769719 -0.15682866
2.4269495 -1.0780578 -0.13917483
4.6457887 -2.0636723 -0.088732943
53.393101 -23.717363 1.019791
1.2446781 -0.54544532 -0.16685753
1.636008 -0.71693468 -0.15627235
2.4306991 -1.0651858 -0.1390823
4.65662 -2.0406332 -0.088743582
52.903862 -23.183636 1.0082173
1.2349232 -0.53381699 -0.16518949
1.6395882 -0.70874041 -0.15627345
2.4385152 -1.0540905 -0.13922584
4.6457396 -2.0082014 -0.088343523
52.438297 -22.667364 0.99716973
1.2337793 -0.52600753 -0.16468215
1.6398572 -0.69913411 -0.15596354
2.4439139 -1.0419344 -0.13923451
4.6532474 -1.9838581 -0.088296324
51.988144 -22.164543 0.98648709
1.2418751 -0.52212739 -0.16541177
1.6550709 -0.6958493 -0.15707719
2.4312687 -1.0221899 -0.1382208
4.6655836 -1.9615734 -0.088342957
51.548401 -21.672739 0.97607189
1.2597413 -0.52223319 -0.16744114
1.6570135 -0.6869247 -0.15693322
2.4443736 -1.0133294 -0.13867569
4.6733208 -1.9373527 -0.088304706
51.124409 -21.193926 0.96602237
1.2485845 -0.51029819 -0.16561659
1.6679434 -0.68169075 -0.15764318
2.4472964 -1.0002134 -0.13855569
4.6897101 -1.9166909 -0.088431977
50.729607 -20.733259 0.9565891
1.2556573 -0.5058676 -0.16621673
1.6524984 -0.66574329 -0.15586646
2.4348311 -0.98092234 -0.13757022
4.6886234 -1.8889092 -0.088232055
50.328674 -20.275951 0.9471029
1.2453974 -0.49450207 -0.16452883
1.6612164 -0.6596086 -0.15637533
2.4647048 -0.97864461 -0.13897954
4.7018046 -1.8669156 -0.088303111
49.965538 -19.839499 0.93838847
1.252653 -0.49013752 -0.16516112
1.6718856 -0.65417463 -0.1570694
2.4582675 -0.96186978 -0.13834329
4.704248 -1.840676 -0.088174835
49.59594 -19.405876 0.92961091
1.2539036 -0.48340252 -0.16500486
1.6796509 -0.64753574 -0.1574924
2.4633768 -0.94967628 -0.13836153
4.6981306 -1.8112142 -0.087889113
49.247074 -18.985638 0.92127877
1.253806 -0.47616893 -0.16467625
1.6568409 -0.62923306 -0.15505631
2.467067 -0.93693972 -0.13830361
4.7146211 -1.790513 -0.088028811
48.919571 -18.578615 0.91340065
1.2517413 -0.46822792 -0.16409513
1.6831503 -0.62960136 -0.15722153
2.4767377 -0.92645168 -0.13858399
4.7114606 -1.762375 -0.087803967
48.580959 -18.172256 0.90536833
1.2747946 -0.46958992 -0.166807
1.6750706 -0.61703765 -0.15617631
2.4760127 -0.91207683 -0.1382862
4.695682 -1.7297257 -0.08734744
48.262928 -17.778381 0.89777142
1.2560362 -0.45555177 -0.16405198
1.6718423 -0.60636055 -0.15559036
2.4968936 -0.9055984 -0.13919745
4.7147212 -1.7099823 -0.08754126
47.962318 -17.395452 0.89054841
1.2761515 -0.45563132 -0.16637926
1.685326 -0.60172111 -0.15656289
2.4774089 -0.88452268 -0.13786262
4.7212977 -1.6856705 -0.087505579
47.664413 -17.017885 0.8834241
1.2548338 -0.44094992 -0.1633101
1.6927273 -0.5948261 -0.15697186
2.4982293 -0.87788033 -0.13877493
4.734498 -1.6637075 -0.08759477
47.391987 -16.653593 0.8768186
1.2798108 -0.44254115 -0.16627029
1.6800216 -0.58092868 -0.15552197
2.4818532 -0.85819113 -0.13762487
4.7418432 -1.6396649 -0.087577693
47.093609 -16.28433 0.86977905
1.2673017 -0.43112487 -0.16436265
1.6839095 -0.57285118 -0.15561445
2.4932086 -0.84816766 -0.13801736
4.7333126 -1.6102313 -0.087270156
46.848591 -15.937479 0.86376929
1.2748629 -0.42658827 -0.16506426
1.7026101 -0.56971896 -0.15707707
2.4910185 -0.83353221 -0.13766339
4.7531805 -1.5904856 -0.087488569
46.594223 -15.591126 0.85762948
1.283222 -0.42225379 -0.16587079
1.6891587 -0.5558303 -0.15557742
2.5077357 -0.82518923 -0.13835722
4.7616162 -1.5668454 -0.087498367
46.339386 -15.248322 0.8515231
1.2748274 -0.4124299 -0.16451673
1.6996232 -0.54985911 -0.15628573
2.5039022 -0.81005806 -0.13792025
4.6039653 -1.4894668 -0.084463328
46.095581 -14.912761 0.84566051
1.2828314 -0.40793642 -0.16528404
1.6972049 -0.53970593 -0.15581298
2.5068746 -0.79717833 -0.1378624
4.6043139 -1.4641575 -0.084334187
45.853607 -14.581306 0.83987159
1.287623 -0.40237331 -0.16563977
1.6988822 -0.53088897 -0.15572099
2.5168331 -0.786493 -0.13819179
4.5968318 -1.4364783 -0.084064364
45.642529 -14.262976 0.83468705
1.283236 -0.39396182 -0.16481966
1.7025543 -0.5226953 -0.15581578
2.5138202 -0.77175921 -0.13781251
4.5971041 -1.411341 -0.08393909
45.423107 -13.94519 0.82938731
1.2865187 -0.38793272 -0.16498978
1.7148603 -0.51709342 -0.15670313
2.5154908 -0.75851297 -0.13769418
4.5905938 -1.3842329 -0.083692633
4.6673565 -1.4073796 0.085092239
1.2898027 -0.38188928 -0.16516367
1.7133708 -0.50730085 -0.15633298
2.5187662 -0.74576509 -0.13766737
4.5855074 -1.3576932 -0.083474942
4.6798153 -1.3856162 0.085191846
1.2857367 -0.37369475 -0.16440138
1.716271 -0.49882799 -0.15636779
2.5205448 -0.73258722 -0.13756241
4.598208 -1.3364526 -0.083583295
4.690455 -1.3632637 0.08526022
1.3025329 -0.37151504 -0.16630913
1.7135391 -0.48874432 -0.15589401
2.520988 -0.71904898 -0.13738841
4.6177258 -1.3170912 -0.083817169
44.632202 -12.730223 0.81012821
1.2825913 -0.35889372 -0.16353151
1.7084794 -0.47806537 -0.155214
2.52403 -0.70627213 -0.13735978
4.6242814 -1.2939628 -0.083817534
44.461075 -12.441063 0.80588144
1.2927716 -0.35477331 -0.16460098
1.7030325 -0.46736062 -0.15450466
2.5367291 -0.69615072 -0.13785949
4.6894579 -1.2869208 -0.084881045
44.280499 -12.151831 0.80149573
1.2963556 -0.34878775 -0.16483292
1.7179184 -0.4622103 -0.15564327
2.5224757 -0.67867845 -0.13689852
4.768856 -1.2830727 -0.086200833
44.119576 -11.870484 0.79749727
1.294849 -0.34144011 -0.16442196
1.7092416 -0.45071173 -0.15465079
2.5505321 -0.67255253 -0.13823672
4.782011 -1.2609736 -0.086323433
43.949348 -11.589049 0.7933616
1.2892151 -0.33306062 -0.16349278
1.7203752 -0.44444811 -0.15545487
2.5352578 -0.6549679 -0.13722943
4.7947621 -1.2386967 -0.086440586
43.79945 -11.315312 0.7896232
1.2998469 -0.3288745 -0.16463019
1.7271167 -0.43697813 -0.15586442
2.5418952 -0.64312536 -0.1374127
4.7895174 -1.2117966 -0.086235575
43.633274 -11.039662 0.78562111
1.3095202 -0.32435527 -0.16564763
1.7127432 -0.42422959 -0.15437368
2.5481842 -0.63116014 -0.13758014
4.8009062 -1.1891371 -0.086332366
43.506271 -10.776075 0.78235334
1.3089217 -0.31726074 -0.16536891
1.726679 -0.41851813 -0.15543894
2.5467815 -0.61729729 -0.13733584
4.7998157 -1.1633952 -0.086206943
43.376247 -10.513678 0.77905887
1.3065363 -0.30976579 -0.16486956
1.7252558 -0.40903968 -0.15512455
2.5462935 -0.60369891 -0.13714482
4.8089457 -1.1401496 -0.086267322
43.233597 -10.250223 0.77556545
1.3189745 -0.30574864 -0.16624388
1.7301234 -0.4010562 -0.15537973
2.5441127 -0.58974528 -0.13686663
4.8157187 -1.1163213 -0.086287484
43.11441 -9.9942589 0.77252012
1.3046998 -0.29556495 -0.16425614
1.7311563 -0.39217383 -0.15529422
2.5616701 -0.58031732 -0.13765316
4.8055429 -1.0886413 -0.086006433
42.98209 -9.7371044 0.76926613
1.305421 -0.28886536 -0.1641628
1.7230453 -0.38127789 -0.15439345
2.5568209 -0.56577688 -0.13723864
4.8209319 -1.0667826 -0.086185187
42.861847 -9.4845285 0.7662546
1.3087703 -0.28274122 -0.16440395
1.7417493 -0.37628016 -0.15589868
2.5540433 -0.55176473 -0.13693957
4.820694 -1.0414424 -0.086086646
42.765583 -9.2388954 0.76369727
1.3167833 -0.27757987 -0.16523387
1.7365164 -0.3660602 -0.1552643
2.5658174 -0.54087806 -0.13742395
4.8277664 -1.0177003 -0.086120881
42.660557 -8.9929085 0.7610082
1.3185966 -0.27107477 -0.16528906
1.7333609 -0.35634127 -0.15482074
2.5617504 -0.52664012 -0.13706321
4.8253255 -0.99198186 -0.085987672
42.553116 -8.7479944 0.75830084
1.318153 -0.26411265 -0.16506563
1.7312726 -0.34688768 -0.15447716
2.5606046 -0.51305735 -0.13686275
4.8405557 -0.96988142 -0.086171471
42.44949 -8.5054226 0.75568599
1.3332635 -0.26020458 -0.16679263
1.7461921 -0.34079322 -0.15565421
2.5578027 -0.49919009 -0.13657771
4.8404541 -0.94468069 -0.086084396
42.34544 -8.2642908 0.75308776
1.3169498 -0.25018325 -0.16459301
1.7384447 -0.33025536 -0.15481429
2.5634716 -0.48698714 -0.13674852
4.8498073 -0.92132634 -0.086167619
42.271629 -8.0304146 0.75105065
1.3186604 -0.24367483 -0.16465227
1.7407345 -0.32166979 -0.15487285
2.5815649 -0.47704658 -0.13758458
4.8511233 -0.89643764 -0.08611019
42.193584 -7.7969398 0.74896115
1.3273196 -0.23840946 -0.16558239
1.7357106 -0.31176353 -0.15428509
2.569483 -0.46152344 -0.13681583
4.8509645 -0.87131679 -0.086028859
42.125107 -7.5663948 0.74706388
1.318939 -0.23009425 -0.16439116
1.7601314 -0.30706206 -0.15631722
2.5762289 -0.44943357 -0.13705349
4.8579497 -0.84748906 -0.086076424
42.042549 -7.3344932 0.74493921
1.3262067 -0.22452664 -0.16515481
1.7513833 -0.296509 -0.15540652
2.5799148 -0.43677929 -0.13713153
4.8588567 -0.82260388 -0.086018436
41.969036 -7.1053534 0.74299705
1.3348008 -0.21911351 -0.16608638
1.7506496 -0.28737694 -0.15521181
2.5694373 -0.42178458 -0.13646066
4.849021 -0.79598844 -0.085772693
41.915661 -6.8806429 0.74143302
1.3269596 -0.21100979 -0.16497721
1.7405094 -0.27677143 -0.15418801
2.582468 -0.41065758 -0.13704182
4.8574548 -0.77242017 -0.085852392
41.862843 -6.6569238 0.73989999
1.3252484 -0.2039407 -0.16463545
1.7390664 -0.26762262 -0.15393956
2.5761795 -0.39644486 -0.13660108
4.8592925 -0.74779004 -0.085817635
41.796062 -6.4319406 0.7381413
1.3325526 -0.19824086 -0.16541748
1.7549076 -0.26107368 -0.15522416
2.5786145 -0.38361469 -0.13662665
4.8573661 -0.72261947 -0.085718654
41.740269 -6.2096062 0.73659766
1.3297669 -0.19102696 -0.16495089
1.7484527 -0.25117305 -0.15454005
2.5786321 -0.37043202 -0.1365276
4.8579769 -0.69787014 -0.085666701
41.686131 -5.988399 0.73510408
1.3259834 -0.18371305 -0.16436543
1.7536174 -0.24296112 -0.1548871
2.5884748 -0.35862938 -0.13695197
4.8602061 -0.67337441 -0.085645489
41.652218 -5.7708535 0.73398733
1.3304284 -0.17754523 -0.16480418
1.7536589 -0.2340252 -0.15478534
2.5852859 -0.34500554 -0.13669015
4.8694682 -0.64982891 -0.085750304
41.605286 -5.5522118 0.73266131
1.3457377 -0.17273568 -0.16659136
1.7585378 -0.22572172 -0.15511428
2.5869873 -0.33205953 -0.1366905
4.8839245 -0.62688887 -0.085948527
41.580399 -5.3371606 0.7317434
1.334851 -0.16454989 -0.16513965
1.7618798 -0.21719062 -0.15531123
2.5977128 -0.32022551 -0.13717078
4.8830223 -0.60194039 -0.085878551
41.547581 -5.1216574 0.73070544
1.3341334 -0.15768504 -0.16495113
1.7445915 -0.20619825 -0.15369432
2.6041868 -0.30779627 -0.13742955
4.8831549 -0.57715404 -0.085828982
41.503254 -4.9053879 0.7294848
1.3261291 -0.15001123 -0.16386658
1.7533202 -0.19833492 -0.15437388
2.6026509 -0.29441088 -0.13726899
4.8690281 -0.55078268 -0.085531153
41.483364 -4.6925826 0.72871321
1.335274 -0.1442792 -0.16490526
1.7514057 -0.18924314 -0.15411998
2.5932035 -0.28020117 -0.13669503
4.8777037 -0.52704626 -0.085636124
41.472561 -4.4811988 0.72812015
1.3383378 -0.13783558 -0.16519636
1.7584493 -0.18110292 -0.15465808
2.5906262 -0.2668089 -0.13648704
4.8893523 -0.503555 -0.085795306
41.456593 -4.2696195 0.72745544
1.337503 -0.13098611 -0.1650103
1.7646632 -0.17281935 -0.15512656
2.6008029 -0.25470528 -0.13695429
4.9006152 -0.47993356 -0.085949697
41.449917 -4.0593281 0.72697258
1.3416499 -0.12461445 -0.16544288
1.7687774 -0.16428669 -0.15541397
2.5999177 -0.24148422 -0.13684231
4.8916903 -0.45434749 -0.085752197
41.429989 -3.848079 0.7262761
1.331048 -0.11691173 -0.16406129
1.7659124 -0.15510777 -0.15509208
2.5960836 -0.2280253 -0.13657871
4.8911653 -0.42961231 -0.085704215
41.422371 -3.6383069 0.72581416
1.3336267 -0.11041316 -0.16430897
1.7642454 -0.14606477 -0.1548795
2.5917876 -0.21457836 -0.13629448
4.8964105 -0.40538189 -0.085759498
41.423943 -3.4295564 0.72553182
1.3383448 -0.10406048 -0.16482399
1.7824111 -0.13858803 -0.15641136
2.5910332 -0.20146091 -0.13620007
4.8986678 -0.38088667 -0.08576455
41.443565 -3.2223663 0.72558379
1.3452902 -0.097827502 -0.16561696
1.770262 -0.12873082 -0.15528674
2.5879595 -0.18819256 -0.13598727
4.9035587 -0.35657948 -0.085817859
41.455555 -3.0145862 0.72552043
1.3442973 -0.090992212 -0.16543657
1.7579387 -0.1189906 -0.15415156
2.6078565 -0.17651947 -0.13698462
4.894639 -0.33130622 -0.085631646
41.452099 -2.8057919 0.725205
1.3351253 -0.083659001 -0.16425422
1.7931619 -0.11235959 -0.15718894
2.595917 -0.16266026 -0.13631299
4.9075093 -0.30750471 -0.085828811
41.467793 -2.5983734 0.72524285
1.3369089 -0.077053629 -0.16442414
1.7657585 -0.10177065 -0.15474017
2.6170597 -0.15083596 -0.13738184
4.8965955 -0.28221852 -0.085612148
41.500282 -2.391896 0.72559261
1.3439102 -0.070708729 -0.1652396
1.7711233 -0.093186192 -0.15516748
2.5958476 -0.1365784 -0.13623071
4.9064322 -0.2581479 -0.085760467
41.495747 -2.1832645 0.72531307
1.3488957 -0.064201146 -0.16581097
1.7611389 -0.083822004 -0.15425405
2.6079161 -0.12412466 -0.13682975
4.9037299 -0.2333947 -0.085691735
41.536167 -1.976928 0.72583753
1.3406059 -0.057081517 -0.16475478
1.783716 -0.075948656 -0.15619625
2.5981326 -0.11062561 -0.13628566
4.9104285 -0.20908062 -0.08578942
41.571438 -1.7700658 0.72628993
1.3415898 -0.050396267 -0.16484264
1.7732539 -0.066611551 -0.15524897
2.6070464 -0.097932622 -0.1367258
4.9081779 -0.18437368 -0.0857329
41.587513 -1.5622177 0.72642499
1.3309666 -0.043325849 -0.16350865
1.7653683 -0.057466567 -0.15453146
2.6052296 -0.084805861 -0.13660654
4.9172683 -0.16006774 -0.085876614
41.635189 -1.3553157 0.72713023
1.344543 -0.037030566 -0.16515166
1.7852595 -0.049168508 -0.15624912
2.6066608 -0.07179103 -0.13666104
4.8983111 -0.13490623 -0.085532673
41.697071 -1.1483948 0.72810143
1.3496987 -0.030411374 -0.16576415
1.7678851 -0.039833937 -0.1547091
2.6098313 -0.05880465 -0.13681011
4.9124928 -0.11068814 -0.085769556
41.725948 -0.9401679 0.72851431
1.3395597 -0.023474036 -0.16450243
1.7733458 -0.031075573 -0.15517141
2.609683 -0.045731291 -0.13678862
4.9043546 -0.085942417 -0.085618883
41.775448 -0.73206025 0.72930545
1.3433467 -0.016813729 -0.16495509
1.7883536 -0.022383567 -0.15647285
2.6131942 -0.032707516 -0.13696235
4.9261713 -0.061657429 -0.08599329
41.82753 -0.52352583 0.73015976
1.3448341 -0.010099069 -0.16512945
1.7828603 -0.013388439 -0.1559844
2.6128862 -0.019621542 -0.13693935
4.9096665 -0.036869276 -0.085700877
41.897366 -0.31462944 0.7313422
1.3448567 -0.0033663567 -0.1651281
1.7651544 -0.0044184183 -0.15443142
2.600692 -0.006509881 -0.13629685
4.9238334 -0.012325016 -0.085946016
41.953506 -0.10501526 0.7323038
1.3377459 0.0033485575 -0.16425499
1.7643415 0.0044163833 -0.15436029
2.6116464 0.006537301 -0.13687094
4.922976 0.012322869 -0.085931048
42.033291 0.10521496 0.7336964
1.355306 0.010177708 -0.16641529
1.7707753 0.013297686 -0.15492706
2.6134086 0.019625464 -0.13696672
4.9137836 0.036900192 -0.085772738
42.095119 0.31611446 0.73479402
1.3462689 0.016850302 -0.16531391
1.784397 0.022334045 -0.15612668
2.6152484 0.032733228 -0.13707002
4.9246588 0.061638497 -0.085966885
42.169163 0.52780181 0.73612344
1.3415068 0.023508158 -0.16474155
1.7737706 0.031083016 -0.15520857
2.6049755 0.045648795 -0.13654186
4.9272261 0.086343206 -0.086018167
42.241077 0.74021983 0.73743427
1.3406087 0.030206557 -0.16464776
1.7776831 0.040054709 -0.15556653
2.6056139 0.058709621 -0.13658904
4.936872 0.11123746 -0.086195208
42.350971 0.95425087 0.73942685
1.3319495 0.036683723 -0.16360478
1.7718964 0.048800468 -0.15507956
2.6059248 0.071770765 -0.13662244
4.9279127 0.1357215 -0.086049564
42.417507 1.1682366 0.74068141
1.3325677 0.043377966 -0.16370533
1.7717868 0.057675499 -0.1550933
2.6057031 0.084821276 -0.13663137
4.9190412 0.16012545 -0.085907578
42.508472 1.3837429 0.74238151
1.3384621 0.050278775 -0.16445832
1.7574631 0.06601838 -0.15386648
2.599623 0.097653762 -0.13633648
4.9104304 0.1844583 -0.085772254
42.610535 1.6006471 0.74429452
1.345997 0.057311065 -0.16541733
1.7704076 0.075381994 -0.15503086
2.6007347 0.11073641 -0.13642216
4.9312077 0.20996538 -0.086152457
42.7225 1.8190769 0.7464
1.346481 0.064086221 -0.16551417
1.7645556 0.083984621 -0.15455329
2.5966144 0.12358674 -0.13623677
4.9233232 0.23432724 -0.086034119
42.817207 2.0378995 0.74822348
1.3394424 0.070473656 -0.16469026
1.7666135 0.092948914 -0.15477237
2.595983 0.13658552 -0.13623782
4.9056354 0.25810596 -0.085746534
42.930626 2.2587595 0.75039369
1.3419268 0.077342838 -0.16504127
1.7691411 0.10196561 -0.15503658
2.6163447 0.15079474 -0.1373443
4.9204235 0.28359184 -0.086028762
43.055111 2.4815097 0.75277734
1.3437914 0.084202014 -0.16532035
1.7759709 0.1112824 -0.15568198
2.6191974 0.16411901 -0.13753545
4.9218864 0.30840561 -0.086080253
43.15844 2.7043095 0.75481117
1.3370756 0.090503395 -0.16454783
1.7884623 0.12105666 -0.15682814
2.6001487 0.17599775 -0.13657975
4.9139967 0.33261651 -0.085970312
43.29631 2.9306219 0.75746948
1.3276772 0.096546717 -0.16344866
1.7627013 0.12818101 -0.15462352
2.6153302 0.19018292 -0.1374255
4.9144654 0.35737258 -0.086008735
43.425682 3.157851 0.75999993
1.3278339 0.10324322 -0.16352953
1.7808043 0.13846308 -0.15627035
2.6065133 0.20266452 -0.13701379
4.9238243 0.38284269 -0.086204991
43.587593 3.3890712 0.76312095
1.3436226 0.11124072 -0.16554049
1.770068 0.14654684 -0.15539065
2.611553 0.21621476 -0.13733388
4.9237089 0.40764198 -0.086237624
43.716896 3.6193938 0.76569241
1.3299117 0.11681192 -0.16392124
1.7777622 0.15614858 -0.15613277
2.6284978 0.23087239 -0.13828401
4.9098773 0.43125588 -0.086032093
43.863636 3.8527339 0.76859069
1.3495435 0.12534761 -0.16641626
1.7612994 0.16359212 -0.15475692
2.6064951 0.24209514 -0.13718851
4.9353809 0.45840555 -0.086518109
44.007511 4.0874829 0.77146059
1.3388325 0.13111633 -0.16517434
1.7634444 0.17269997 -0.1550194
2.6098545 0.25559175 -0.13743095
4.9284558 0.48266008 -0.086437985
44.168728 4.3255906 0.77465665
1.3365752 0.13765405 -0.1649788
1.7631929 0.18159145 -0.15507528
2.6047366 0.26826215 -0.13723044
4.9344525 0.50819987 -0.086586691
44.340282 4.5666113 0.77805674
1.3301704 0.14372775 -0.16427499
1.7639222 0.19059555 -0.1552214
2.601243 0.28106987 -0.1371188
4.9278574 0.53246546 -0.086516656
44.49884 4.8081946 0.78125155
1.3247468 0.14985487 -0.16369578
1.7574947 0.19880715 -0.15474144
2.6110098 0.29535645 -0.13770986
4.9345174 0.55819076 -0.08668156
44.655872 5.0514555 0.78444266
1.3450766 0.15897845 -0.16630414
1.7794437 0.21031755 -0.15676472
2.6125433 0.30878395 -0.13787054
4.9209414 0.5816201 -0.086493142
44.875366 5.3039474 0.78875494
1.3385314 0.16500357 -0.16559495
1.7596651 0.2169176 -0.15511599
2.6058137 0.32122412 -0.13759854
4.904757 0.60461968 -0.086260796
45.033955 5.5514297 0.79202098
1.3305743 0.17078935 -0.16471426
1.7656219 0.22663102 -0.15573914
2.5963724 0.33326417 -0.13718639
4.9246783 0.63211995 -0.086665735
45.232693 5.8059607 0.79601747
1.3295263 0.17742485 -0.16469243
1.7767535 0.23710717 -0.15682377
2.5938036 0.34614223 -0.1371405
4.9106984 0.65533108 -0.086476356
45.448517 6.0650892 0.80033988
1.3428876 0.18605511 -0.16646083
1.754212 0.2430435 -0.15493961
2.6065218 0.36112979 -0.1379068
4.92027 0.68169618 -0.086703926
45.654236 6.3253269 0.80451012
1.3297042 0.19101794 -0.16494311
1.7755892 0.25507134 -0.15693857
2.5997503 0.37346575 -0.13764572
4.9167686 0.70631582 -0.086703449
45.875893 6.5902772 0.80898744
1.3368239 0.19887631 -0.16594771
1.7706816 0.26342034 -0.1566194
2.6073918 0.38789582 -0.13815139
4.9234886 0.73245639 -0.086885527
46.099136 6.8580651 0.81351936
1.3351564 0.20546545 -0.16586633
1.7595028 0.27076754 -0.15574856
2.6011028 0.40028027 -0.13792263
4.9227524 0.75755584 -0.086938366
46.311195 7.1267686 0.81788105
1.3289783 0.21133077 -0.16522817
1.7659369 0.28081483 -0.15644057
2.5990784 0.4132989 -0.13792327
4.918108 0.78206515 -0.086924404
46.550426 7.4023318 0.82275015
1.3303196 0.2183779 -0.16552879
1.7627039 0.28935573 -0.15628055
2.5929191 0.42563924 -0.13770777
4.9266748 0.80873567 -0.08714629
46.803932 7.6830745 0.82790011
1.3277942 0.2247954 -0.16535251
1.7589996 0.29779845 -0.15608235
2.5942867 0.43921247 -0.13789545
4.9164543 0.83235514 -0.087038115
47.047832 7.9651933 0.83290935
1.337636 0.23335601 -0.16672152
1.7511758 0.30549973 -0.15552187
2.6017566 0.45388702 -0.13841155
4.9100771 0.85658288 -0.087000042
47.316448 8.2545462 0.83838582
1.3217556 0.23741008 -0.16488829
1.7588754 0.31592432 -0.15634418
2.5883009 0.46490344 -0.13781781
4.9145203 0.88273251 -0.087155983
47.581181 8.5464001 0.84382409
1.3166972 0.24331208 -0.16440715
1.7574124 0.3247517 -0.15635669
2.5799809 0.47675389 -0.13750017
4.9167657 0.90856761 -0.087275378
47.862183 8.8444376 0.84958208
1.3251238 0.25173607 -0.1656146
1.7590158 0.33416328 -0.15664622
2.5771036 0.48957685 -0.13747571
4.9185047 0.93437684 -0.08738818
48.154541 9.1480017 0.85557377
1.3241889 0.25843352 -0.16565739
1.7727408 0.34597456 -0.15802073
2.5645387 0.50050473 -0.13693739
4.9058285 0.95743942 -0.087247036
48.44529 9.4547596 0.86156982
1.3265736 0.26579988 -0.16612011
1.7517139 0.35098341 -0.1563011
2.5839808 0.51774114 -0.1381122
4.9143891 0.98467505 -0.087485842
48.767883 9.7714119 0.86816603
1.3287003 0.27315184 -0.16655557
1.7555653 0.360906 -0.156804
2.5990319 0.53430438 -0.1390579
4.9140549 1.0102227 -0.087568834
49.06778 10.087267 0.87439287
1.3182211 0.27788296 -0.16541429
1.7520957 0.36934435 -0.15665728
2.5845234 0.54482138 -0.13842584
4.8989658 1.0327092 -0.087390982
49.400478 10.413694 0.88123959
1.3130869 0.28367373 -0.16494618
1.7392049 0.37573048 -0.15567094
2.5693095 0.55506277 -0.13775809
4.9061842 1.0599114 -0.087613307
49.751644 10.748135 0.88845265
1.3246613 0.29312289 -0.16658236
1.7480037 0.38680071 -0.15662985
2.5776441 0.57038468 -0.13835634
4.8913627 1.0823675 -0.087444298
50.084801 11.082835 0.89538169
1.3272171 0.30066597 -0.16709097
1.7566932 0.39795893 -0.15758502
2.5764093 0.58365631 -0.13844517
4.8972478 1.1094159 -0.087647699
50.459034 11.430922 0.90308374
1.3295186 0.30819282 -0.16757286
1.7369338 0.40263492 -0.15599136
2.579335 0.59791011 -0.13876149
4.8999677 1.135851 -0.087797053
50.828159 11.782367 0.91073436
1.3040261 0.30917063 -0.16455281
1.7317362 0.41057611 -0.15570721
2.5644114 0.6079945 -0.13812067
4.9068203 1.1633545 -0.088023081
51.220531 12.14384 0.91884267
1.3233365 0.32075465 -0.16719007
1.7185665 0.4165518 -0.15470864
2.5722041 0.62345928 -0.13870676
4.8889794 1.185007 -0.087808371
51.610386 12.509496 0.92694807
1.3084098 0.32408023 -0.16550715
1.7307622 0.42869276 -0.15599778
2.574563 0.63769388 -0.13900436
4.9017768 1.2141218 -0.088146269
52.019901 12.884817 0.93545002
1.300617 0.32906935 -0.16472773
1.7497308 0.4426997 -0.15790524
2.5742102 0.65130138 -0.13915962
4.8876948 1.2366365 -0.08800327
52.456387 13.271999 0.94448209
1.3136754 0.33937979 -0.16659473
1.7223109 0.4449482 -0.15562978
2.5678892 0.66339803 -0.13899571
4.8979802 1.2653624 -0.088301413
52.901821 13.666853 0.95372212
1.2986054 0.34243062 -0.16489895
1.7286086 0.45581862 -0.15640309
2.5709665 0.67794085 -0.13934425
4.9002028 1.2921396 -0.088456996
53.352997 14.068707 0.96311367
1.3030714 0.35059464 -0.16568685
1.7339755 0.4665305 -0.15709805
2.5649161 0.69009721 -0.13920183
4.8822498 1.3135817 -0.088250518
53.825436 14.48187 0.9729386
1.3024615 0.35743251 -0.16583474
1.7345945 0.47602212 -0.15736806
2.5575709 0.70187026 -0.13899215
4.8739023 1.3375376 -0.088219568
54.336582 14.911506 0.98351508
1.2986888 0.36339805 -0.16558394
1.7200171 0.48129383 -0.15626219
2.5552325 0.71500313 -0.13905784
4.8756514 1.3643008 -0.088373736
5.4286637 1.5190444 0.098397516
1.2999746 0.37078533 -0.16598248
1.7316226 0.49390218 -0.1575392
2.5581818 0.72965753 -0.1394154
4.8946533 1.3960779 -0.088843733
5.4174414 1.5451901 0.098333091
1.2941027 0.37612629 -0.16547111
1.7326005 0.50357407 -0.15785554
2.5460582 0.74000263 -0.13895485
4.8791051 1.4180943 -0.08868926
5.4131351 1.5733081 0.098396659
1.2927898 0.38277376 -0.16554619
1.7154 0.50790167 -0.15651813
2.5270796 0.74822658 -0.13812177
4.8660626 1.4407609 -0.08858218
56.46019 16.716932 1.0278072
1.3012559 0.39237651 -0.16687976
1.715992 0.51743466 -0.15680654
2.5445776 0.76728368 -0.13928635
4.8749514 1.469977 -0.088876851
57.040539 17.19982 1.0399264
1.2843817 0.39431357 -0.16496681
1.7169785 0.52712363 -0.15713586
2.5324488 0.77747834 -0.13883376
4.8558445 1.4907759 -0.088663459
57.660336 17.702099 1.0528287
1.2992239 0.40599853 -0.16713212
1.7131814 0.53535742 -0.15703167
2.5294659 0.79044068 -0.13888542
4.8686709 1.5214261 -0.089035615
58.28104 18.212423 1.0658137
1.2900807 0.41024166 -0.16621804
1.7124612 0.54455739 -0.15721358
2.5224583 0.80213398 -0.13871942
4.8669529 1.547676 -0.089144781
58.939144 18.742466 1.0795511
1.2903397 0.41744843 -0.1665186
1.7186126 0.5560025 -0.15803188
2.5359805 0.82043588 -0.13968717
4.8732595 1.5765883 -0.089403734
59.618904 19.287802 1.0937568
1.2848308 0.42278323 -0.16607875
1.7088044 0.56229484 -0.15738685
2.5300622 0.83253586 -0.13958901
4.8564944 1.5980659 -0.089241825
60.320118 19.848787 1.1084303
1.2961712 0.43371835 -0.16782318
1.7155025 0.5740329 -0.15826648
2.5249984 0.8449024 -0.13954125
4.8508124 1.6231548 -0.08928562
61.051277 20.428675 1.1237311
1.2790836 0.43513298 -0.16589072
1.7062405 0.58044803 -0.15767811
2.5186532 0.85682362 -0.1394259
4.8586135 1.6528575 -0.089580394
61.829182 21.033745 1.1399734
1.2728615 0.44013819 -0.16536744
1.7120616 0.59200764 -0.15848796
2.5277748 0.87407017 -0.14017133
4.8465981 1.6758877 -0.089512423
62.618263 21.652544 1.1565062
1.2826439 0.4507224 -0.16692942
1.7008402 0.59767699 -0.15772419
2.5176942 0.88472039 -0.1398562
4.8515592 1.7048429 -0.089760564
63.449669 22.296278 1.1739084
1.2817997 0.45764789 -0.16711563
1.700953 0.60730046 -0.15801461
2.4976878 0.89176309 -0.1389911
4.8441124 1.7295197 -0.089781851
64.312714 22.961918 1.1919879
1.2779775 0.46350965 -0.16691774
1.6969939 0.61548275 -0.15793109
2.5185974 0.91347009 -0.1404074
4.8483496 1.758448 -0.090022422
65.200928 23.647726 1.2106292
1.2610933 0.46454284 -0.16501418
1.697165 0.62517643 -0.15823629
2.5130396 0.92571628 -0.14035417
4.8421869 1.783693 -0.090072669
66.159073 24.370699 1.2306697
1.2826771 0.47979981 -0.1681506
1.6911886 0.63260818 -0.15797238
2.5192332 0.94234765 -0.14096181
4.8429556 1.8115622 -0.090254538
67.124283 25.108595 1.2509469
1.2709901 0.48269507 -0.16693324
1.6739376 0.63572598 -0.15665631
2.5102863 0.95335346 -0.14072648
4.8339105 1.8358166 -0.090256117
68.165932 25.887976 1.2727587
1.2725248 0.49058133 -0.16745529
1.6847512 0.64950198 -0.15797062
2.5083547 0.96701604 -0.14088783
4.8409362 1.8662683 -0.090560615
69.244141 26.694868 1.2953695
1.2836442 0.50226372 -0.16924727
1.6852859 0.65941787 -0.15832832
2.5068462 0.98087764 -0.14107713
4.831378 1.8904194 -0.090557717
70.382492 27.539228 1.3192276
1.2784349 0.50762004 -0.16889338
1.6771275 0.66592634 -0.15787309
2.5023687 0.99359959 -0.14110333
4.8369436 1.9205745 -0.090841122
71.551987 28.410692 1.3437973
1.2659205 0.51000237 -0.16757531
1.6761054 0.67525387 -0.15809311
2.4981902 1.0064478 -0.14115006
4.8263798 1.9444072 -0.090824403
72.7789 29.320492 1.3695793
1.2629417 0.51616603 -0.16752097
1.6820838 0.68746996 -0.15897964
2.4864051 1.0161972 -0.14076987
4.8173771 1.9688685 -0.090839334
74.095856 30.283077 1.3971976
1.2555368 0.52049017 -0.16688229
1.6726609 0.69341141 -0.15841515
2.4782488 1.0273726 -0.14059752
4.8224196 1.9991626 -0.091122009
75.449013 31.277834 1.4256486
1.2565205 0.52828491 -0.1673625
1.6698283 0.70205384 -0.15847777
2.4713995 1.0390623 -0.1405023
4.810708 2.022589 -0.091090895
76.880577 32.323269 1.4557381
1.2510689 0.53337872 -0.16698992
1.6662656 0.71039301 -0.15847519
2.4902043 1.0616697 -0.14187177
4.820888 2.0553298 -0.091477334
78.408829 33.428696 1.4878258
1.266389 0.54741859 -0.1693985
1.6714656 0.72251999 -0.15931179
2.4797869 1.0719309 -0.14158222
4.8040395 2.0766294 -0.091353767
80.012619 34.586842 1.5215245
1.2556598 0.55025768 -0.16832969
1.6587381 0.72689551 -0.15844356
2.4668269 1.0810179 -0.14114951
4.8199239 2.1121964 -0.091855749
81.686798 35.796951 1.5567493
1.2531266 0.55664235 -0.16836157
1.6559807 0.73559123 -0.15852994
2.4699986 1.0971804 -0.14164351
4.802834 2.1334324 -0.091732465
83.49984 37.090862 1.5948201
1.2524601 0.56387043 -0.16864918
1.6402866 0.73847389 -0.15737945
2.452467 1.1041259 -0.14095336
4.7967606 2.1595509 -0.091821797
85.376945 38.437576 1.6343271
1.2391062 0.56533587 -0.16723001
1.6602199 0.75746691 -0.15965383
2.4669213 1.1255203 -0.14210618
4.7886953 2.1848178 -0.091875635
87.398315 39.875034 1.6768215
1.2380332 0.57235163 -0.16746983
1.6310091 0.75402719 -0.15720583
2.4645193 1.139365 -0.1422946
4.7918611 2.2153118 -0.092147999
89.52298 41.387115 1.7215389
1.2404646 0.58103055 -0.16819008
1.6538445 0.77465665 -0.15977862
2.4600818 1.1522963 -0.14236967
4.7854137 2.2414761 -0.09223865
91.801178 42.999447 1.7694665
1.2384303 0.58765566 -0.16831103
1.6334913 0.77511865 -0.1581852
2.4438565 1.1596503 -0.14176488
4.7796068 2.2680025 -0.092344418
94.236847 44.716946 1.8207062
1.2138367 0.58344847 -0.16536351
1.6484988 0.79237521 -0.16002066
2.4442778 1.174878 -0.14212874
4.7695169 2.2925386 -0.092370071
96.832771 46.544098 1.8753393
1.2295549 0.59859961 -0.16791099
1.6316962 0.79437912 -0.15877368
2.4435873 1.1896422 -0.14243311
4.7724867 2.3234496 -0.092651695
99.61232 48.495514 1.9338479
1.2310803 0.60698473 -0.16853216
1.6456136 0.81137061 -0.16052115
2.4419436 1.2040017 -0.14268686
4.760756 2.3472934 -0.092650935
102.59035 50.58223 1.9965538
1.230615 0.61443281 -0.16888745
1.6312575 0.81446934 -0.15951653
2.4431374 1.2198323 -0.14311166
4.7594643 2.3763494 -0.092856154
105.81717 52.833374 2.0644739
1.2240355 0.61882246 -0.16840754
1.6218597 0.81994617 -0.15899697
2.426621 1.2268007 -0.14250216
4.7540245 2.403441 -0.092983603
109.30025 55.257751 2.1377985
1.2149862 0.62190408 -0.16758877
1.6186723 0.82853526 -0.15908912
2.4273632 1.2424726 -0.14290921
4.7429252 2.4277186 -0.093003072
113.06738 57.87479 2.2171187
1.2160758 0.63016468 -0.16817211
1.6356108 0.84756577 -0.16116892
2.4141593 1.2510058 -0.14249879
4.7403026 2.4564023 -0.093191616
1.2147579 0.63721633 -0.16842891
1.6155206 0.84744138 -0.15960534
2.4221923 1.270591 -0.14334662
4.7380848 2.4854209 -0.093391456
1.2182776 0.64686036 -0.1693638
1.6072315 0.85338056 -0.15920649
2.4238813 1.2869914 -0.14382607
4.7251444 2.5088773 -0.093382798
1.2162406 0.6536051 -0.1695334
1.6081316 0.86420643 -0.15972222
2.3954284 1.2872981 -0.14251839
4.7277861 2.5407021 -0.09368521
1.2086467 0.65734345 -0.16893145
1.614483 0.87806457 -0.16078764
2.4091578 1.3102622 -0.14372368
4.7327104 2.5739667 -0.094036959
1.1982065 0.65945959 -0.1679316
1.6064441 0.88414216 -0.16042584
2.3903594 1.3155873 -0.14299336
4.7360992 2.6066172 -0.094362393
1.195137 0.66558731 -0.16796631
1.6027678 0.89260221 -0.16050297
2.3940229 1.3332624 -0.14361
4.7248583 2.631335 -0.094399713
1.1935934 0.67257833 -0.16822046
1.6047246 0.90424681 -0.16115023
2.3837886 1.3432418 -0.14339767
4.7053375 2.6514122 -0.094273724
1.1899747 0.67841035 -0.16818701
1.596719 0.91029727 -0.16080192
2.3893452 1.3621773 -0.14414035
4.7096729 2.6850076 -0.094628714
1.1850587 0.68349129 -0.16797373
1.5846193 0.91394073 -0.16004217
2.3719151 1.3680193 -0.14350022
4.7039123 2.7130158 -0.094784677
1.1952516 0.69736749 -0.16991122
1.5831397 0.92368013 -0.16035776
2.3738666 1.3850284 -0.14403598
4.6906891 2.7367744 -0.094793119
1.1947585 0.70512074 -0.17034081
1.5827755 0.93412 -0.16079254
2.3692315 1.3982693 -0.14417766
4.6848359 2.7648892 -0.094953373
1.1784348 0.70346487 -0.16851348
1.5769777 0.94137448 -0.16068031
2.359586 1.4085513 -0.14401802
4.6791444 2.7932081 -0.095120244
1.1812301 0.7131784 -0.16942163
1.567135 0.94617206 -0.16015805
2.3658354 1.4283947 -0.1448341
4.6685705 2.818692 -0.095190957
1.1719345 0.71559614 -0.1686001
1.5814145 0.96562916 -0.1621094
2.364099 1.443545 -0.14516839
4.6646781 2.848304 -0.095401146
1.1648343 0.71929097 -0.16809456
1.5658848 0.96694171 -0.16101168
2.3483417 1.4501127 -0.14464478
4.6480894 2.8702185 -0.095354564
1.1614954 0.72528625 -0.16813463
1.562974 0.97598618 -0.16121276
2.3536112 1.4696929 -0.14542073
4.6491375 2.9031155 -0.095673025
1.1694168 0.73839545 -0.16981429
1.5631819 0.98702735 -0.16174185
2.3369703 1.4756143 -0.14484718
4.6526794 2.9378037 -0.096047364
1.1807525 0.75384724 -0.17200625
1.5550981 0.99284679 -0.16141769
2.3319864 1.4888483 -0.14499843
4.6481361 2.967586 -0.096259065
1.1576136 0.74725807 -0.16917835
1.5527297 1.0023117 -0.16169068
2.3281326 1.5028467 -0.14522479
4.6377263 2.9937263 -0.096352652
1.1559572 0.7544139 -0.16948611
1.5405678 1.0054227 -0.16094635
2.325783 1.5178789 -0.14555043
4.6193461 3.01473 -0.096283153
1.1524158 0.76035625 -0.16952285
1.539012 1.0154299 -0.16131289
2.3011189 1.5182629 -0.14448076
4.6331959 3.0569518 -0.0968896
1.1571759 0.77183962 -0.17078935
1.53111 1.0212548 -0.16101851
2.3100572 1.5408148 -0.14552449
4.621263 3.0823956 -0.09696155
1.1475557 0.77375168 -0.16993909
1.5281776 1.03039 -0.16125059
2.306792 1.555379 -0.1458075
4.5993085 3.1011329 -0.096825436
1.1433839 0.77929336 -0.16989689
1.5226507 1.0377895 -0.16121361
2.3004096 1.5678846 -0.14589839
4.612617 3.1438105 -0.097435728
1.1471498 0.79029977 -0.17104223
1.5227399 1.049053 -0.16177706
2.2960002 1.5817711 -0.14611913
4.6035066 3.171469 -0.097577445
1.1395619 0.79351401 -0.17050104
1.5228599 1.0604169 -0.16235179
2.294276 1.597579 -0.14651656
4.5906978 3.1966522 -0.097643934
1.1298712 0.79519469 -0.16964464
1.514809 1.0661108 -0.16206045
2.2886395 1.610727 -0.14666975
4.5707579 3.2168641 -0.097561136
1.1368798 0.80866802 -0.17130265
1.5255743 1.0851483 -0.16379131
2.2709112 1.6153101 -0.14605002
4.5903077 3.2651079 -0.098326087
1.1260288 0.8094694 -0.17027612
1.5046821 1.0816723 -0.16212761
2.2652116 1.6283948 -0.14620592
4.5654416 3.2819636 -0.098144166
1.130975 0.82164407 -0.17164394
1.5159655 1.1013366 -0.16393542
2.2728491 1.6512063 -0.14723058
4.5596709 3.3125637 -0.09837538
1.1188668 0.82143658 -0.17042831
1.5089357 1.1078129 -0.16377291
2.2546344 1.6552813 -0.14658564
4.5577488 3.3461547 -0.098694094
6.2820702 4.6120973 0.13603297
1.1198539 0.83082128 -0.17121008
1.5057589 1.1171248 -0.16403307
2.2487328 1.6683382 -0.14674312
4.5461087 3.3727646 -0.098806426
6.2694907 4.6513443 0.13626312
1.1105103 0.83254099 -0.17041665
1.4885268 1.1159371 -0.16276242
2.2459061 1.6837385 -0.14710689
4.5482111 3.4097588 -0.099221893
1.1130859 0.84320909 -0.17145756
1.4821184 1.1227665 -0.16267426
2.2414997 1.6980295 -0.14737321
4.5277772 3.4299805 -0.09914948
1.1181606 0.85589719 -0.17289713
1.470962 1.1259494 -0.16206641
2.2367313 1.7121083 -0.14762141
4.5336447 3.470283 -0.099657163
1.1061354 0.85550845 -0.17169781
1.4707403 1.1375017 -0.16266738
2.2217448 1.7183443 -0.14719822
4.522222 3.4975822 -0.099789724
1.1062801 0.86450613 -0.17238991
1.4787078 1.1555409 -0.16418639
2.2245359 1.7383708 -0.14795789
4.5110321 3.5251606 -0.099930979
0.64318246 0.50782365 -0.10062103
1.4805403 1.1689582 -0.16503756
2.2003362 1.7372718 -0.14692494
4.5109015 3.5615747 -0.10032181
0.62500978 0.49857515 -0.098167308
1.4586802 1.1636004 -0.16324809
2.216646 1.7682357 -0.14860326
4.4927821 3.5839272 -0.10031661
0.61917859 0.49901623 -0.097642593
0.63250846 0.50975919 -0.071071863
2.1998975 1.7729692 -0.14807364
4.4922581 3.6204572 -0.10070835
0.61576009 0.50136673 -0.097498104
0.62245673 0.50681925 -0.070226617
2.1953309 1.7874912 -0.14836672
4.4860477 3.6526482 -0.10097781
0.60506672 0.49771786 -0.096198261
0.62031853 0.51026374 -0.070272714
0.63075417 0.51884794 -0.042803179
4.4594259 3.6682501 -0.10079068
0.6036616 0.50164998 -0.09637294
0.61515474 0.51120096 -0.069976784
0.6202727 0.51545405 -0.042266488
4.4671049 3.7122176 -0.101383
0.58826065 0.49385118 -0.094307743
0.61219978 0.51394838 -0.069932453
0.61372179 0.51522613 -0.041995335
0.60845244 0.51080245 -0.013866972
0.60161006 0.51021439 -0.096856155
0.59576923 0.50526083 -0.068343654
0.60890889 0.51640439 -0.041842379
0.6154896 0.52198535 -0.014086733
0.63365132 0.53738797 0.014502421
0.59066588 0.50603837 -0.095500864
0.60582638 0.51902676 -0.069794558
0.60178047 0.51556051 -0.041529376
0.60608888 0.51925164 -0.013930899
0.61343306 0.52554357 0.014099725
0.57839769 0.50057054 -0.093921304
0.58672762 0.5077796 -0.067886293
0.59533197 0.51522613 -0.041261848
0.59948015 0.51881617 -0.013838525
0.6075331 0.52578551 0.01402444
0.58633667 0.51259756 -0.095625959
0.58962172 0.51546943 -0.06851887
0.58538026 0.51176143 -0.04074917
0.60238683 0.52662921 -0.013966309
0.59665167 0.52161527 0.01383336
0.57801896 0.5104537 -0.094685003
0.58867699 0.51986587 -0.06871067
0.5918172 0.52263904 -0.041378871
0.59604371 0.52637154 -0.013880167
0.59811014 0.52819645 0.013928308
0.56777287 0.50648695 -0.093420781
0.58713073 0.52375531 -0.068835378
0.58654255 0.52323061 -0.041192707
0.59088492 0.52710432 -0.013821311
0.59121084 0.52739501 0.013828955
0.57687581 0.51981676 -0.095345564
0.57169491 0.51514834 -0.067327194
0.57206839 0.51548487 -0.040356927
0.60390502 0.54417253 -0.014189407
0.5799945 0.52262706 0.013627624
0.57564557 0.52395368 -0.095574573
0.57761085 0.52574247 -0.068333007
0.57770509 0.5258283 -0.040939767
0.58007437 0.5279848 -0.013691415
0.58924842 0.53633505 0.013907969
0.5607475 0.51554996 -0.093528397
0.57252485 0.52637804 -0.068042219
0.57078975 0.52478284 -0.040635377
0.59472221 0.54678625 -0.01410158
0.58822489 0.54081261 0.01394754
0.56602222 0.52565271 -0.094845921
0.56631517 0.52592474 -0.067616299
0.5775069 0.53631824 -0.041304208
0.57116675 0.53043032 -0.013605846
0.58645743 0.54463041 0.013970107
0.55932927 0.52467662 -0.094163373
0.56149983 0.52671272 -0.06735535
0.56875587 0.53351915 -0.040868837
0.56557322 0.53053367 -0.0135357
0.57682872 0.54109186 0.013805095
0.56491226 0.53525543 -0.095553197
0.56791204 0.53809774 -0.068446822
0.57027489 0.54033655 -0.041171852
0.57348263 0.54337585 -0.013789926
0.57528961 0.54508799 0.013833396
0.55257529 0.52884108 -0.093913086
0.55967522 0.53563601 -0.067776434
0.56748819 0.54311341 -0.041166451
0.56535447 0.5410713 -0.01365944
0.57348084 0.54884869 0.013855801
0.5478425 0.52959162 -0.093558148
0.56154412 0.54283679 -0.068331003
0.55382389 0.53537375 -0.040369142
0.56618738 0.54732537 -0.013745594
0.56052834 0.5418548 0.013608227
0.55018854 0.53721374 -0.094416901
0.54998356 0.53701359 -0.067250565
0.56188726 0.54863662 -0.041156586
0.56410795 0.55080491 -0.013761883
0.56162131 0.54837692 0.01370124
0.55480272 0.54717135 -0.095677622
0.55779606 0.55012351 -0.068541758
0.56533343 0.55755717 -0.041612938
0.56295216 0.55520874 -0.013801324
0.56740797 0.55960321 0.013910582
0.56173098 0.55957943 -0.097354323
0.55721486 0.55508059 -0.068810955
0.55335104 0.55123156 -0.040933561
0.5698415 0.56765884 -0.014039718
0.57481992 0.57261819 0.014162395
0.55092448 0.55433691 -0.095961198
0.56070179 0.56417477 -0.069589466
0.56888509 0.57240874 -0.042294126
0.56332844 0.5668177 -0.013948988
0.57782638 0.58140546 0.014308003
0.56039518 0.56954074 -0.098106243
0.56594145 0.57517755 -0.07059627
0.56018847 0.56933069 -0.041858952
0.57204682 0.58138251 -0.014236763
0.5475843 0.56212223 -0.096354939
0.56080705 0.57569605 -0.070314437
0.5651657 0.58017039 -0.042447366
4.2574849 4.3705182 -0.10650098
0.5605669 0.58124304 -0.099150203
0.56368357 0.58447462 -0.071041077
0.57300955 0.59414458 -0.043259345
4.2515821 4.4083986 -0.10690405
0.55323052 0.57941341 -0.098364413
0.56740868 0.5942626 -0.071884602
2.0158887 2.1112952 -0.15298554
4.2498107 4.4509425 -0.10741846
0.55114138 0.58304161 -0.098510705
1.3137357 1.389775 -0.16731559
2.0173159 2.1340785 -0.15390269
4.2367744 4.4819999 -0.10765475
0.56067646 0.5991084 -0.10074984
1.307065 1.3966585 -0.16735442
2.0055707 2.1430438 -0.15382323
4.221858 4.5112476 -0.10784824
0.96118605 1.0374329 -0.17364985
1.3110131 1.4150102 -0.16876484
1.9989442 2.1575119 -0.15414149
4.2164097 4.55088 -0.10828971
0.96676946 1.0539943 -0.17560963
1.3091438 1.4272586 -0.16944188
1.9805471 2.1592379 -0.15355448
4.1965742 4.575202 -0.10836718
0.95845068 1.0554841 -0.17505619
1.285937 1.4161251 -0.16735373
1.973685 2.1735005 -0.15386418
4.1916361 4.6159964 -0.10883503
0.94012523 1.0457754 -0.17266321
1.2905681 1.4356006 -0.16888966
